1.224646799147353207e-16 1.499759782661857608e-32 -1.000000000000000000e+00
2.588190451025210170e-01 3.169619151431768023e-17 -9.659258262890682012e-01
4.999999999999999445e-01 6.123233995736764803e-17 -8.660254037844387076e-01
7.071067811865475727e-01 8.659560562354934091e-17 -7.071067811865474617e-01
8.660254037844384856e-01 1.060575238724906668e-16 -5.000000000000002220e-01
9.659258262890683122e-01 1.182917971378669842e-16 -2.588190451025208505e-01
1.000000000000000000e+00 1.224646799147353207e-16 6.123233995736766036e-17
9.659258262890683122e-01 1.182917971378669842e-16 2.588190451025207395e-01
8.660254037844387076e-01 1.060575238724906915e-16 4.999999999999998890e-01
7.071067811865474617e-01 8.659560562354931626e-17 7.071067811865475727e-01
5.000000000000002220e-01 6.123233995736768501e-17 8.660254037844384856e-01
2.588190451025209060e-01 3.169619151431766790e-17 9.659258262890682012e-01
-0.000000000000000000e+00 -0.000000000000000000e+00 1.000000000000000000e+00
-2.588190451025204619e-01 -3.169619151431761243e-17 9.659258262890683122e-01
-4.999999999999998335e-01 -6.123233995736763571e-17 8.660254037844387076e-01
-7.071067811865472397e-01 -8.659560562354929160e-17 7.071067811865479058e-01
-8.660254037844384856e-01 -1.060575238724906668e-16 5.000000000000003331e-01
-9.659258262890680902e-01 -1.182917971378669595e-16 2.588190451025214056e-01
-1.000000000000000000e+00 -1.224646799147353207e-16 6.123233995736766036e-17
-9.659258262890684232e-01 -1.182917971378669842e-16 -2.588190451025204064e-01
-8.660254037844389297e-01 -1.060575238724907285e-16 -4.999999999999993894e-01
-7.071067811865475727e-01 -8.659560562354934091e-17 -7.071067811865474617e-01
-5.000000000000003331e-01 -6.123233995736769734e-17 -8.660254037844384856e-01
-2.588190451025214611e-01 -3.169619151431773569e-17 -9.659258262890680902e-01
-1.224646799147353207e-16 -1.499759782661857608e-32 -1.000000000000000000e+00
1.182917971378669595e-16 3.169619151431768023e-17 -1.000000000000000000e+00
2.500000000000002220e-01 6.698729810778081273e-02 -9.659258262890682012e-01
4.829629131445340451e-01 1.294095225512604808e-01 -8.660254037844387076e-01
6.830127018922192983e-01 1.830127018922195203e-01 -7.071067811865474617e-01
8.365163037378077204e-01 2.241438680420135554e-01 -5.000000000000002220e-01
9.330127018922192983e-01 2.500000000000002776e-01 -2.588190451025208505e-01
9.659258262890682012e-01 2.588190451025210170e-01 6.123233995736766036e-17
9.330127018922192983e-01 2.500000000000002776e-01 2.588190451025207395e-01
8.365163037378079425e-01 2.241438680420136109e-01 4.999999999999998890e-01
6.830127018922191873e-01 1.830127018922194926e-01 7.071067811865475727e-01
4.829629131445343226e-01 1.294095225512605640e-01 8.660254037844384856e-01
2.500000000000001110e-01 6.698729810778078497e-02 9.659258262890682012e-01
-0.000000000000000000e+00 -0.000000000000000000e+00 1.000000000000000000e+00
-2.499999999999996947e-01 -6.698729810778066007e-02 9.659258262890683122e-01
-4.829629131445339341e-01 -1.294095225512604530e-01 8.660254037844387076e-01
-6.830127018922189652e-01 -1.830127018922194371e-01 7.071067811865479058e-01
-8.365163037378077204e-01 -2.241438680420135554e-01 5.000000000000003331e-01
-9.330127018922190762e-01 -2.500000000000002220e-01 2.588190451025214056e-01
-9.659258262890682012e-01 -2.588190451025210170e-01 6.123233995736766036e-17
-9.330127018922194093e-01 -2.500000000000002776e-01 -2.588190451025204064e-01
-8.365163037378080535e-01 -2.241438680420136664e-01 -4.999999999999993894e-01
-6.830127018922192983e-01 -1.830127018922195203e-01 -7.071067811865474617e-01
-4.829629131445344337e-01 -1.294095225512605918e-01 -8.660254037844384856e-01
-2.500000000000006661e-01 -6.698729810778092375e-02 -9.659258262890680902e-01
-1.182917971378669595e-16 -3.169619151431768023e-17 -1.000000000000000000e+00
1.060575238724906915e-16 6.123233995736764803e-17 -1.000000000000000000e+00
2.241438680420136109e-01 1.294095225512604808e-01 -9.659258262890682012e-01
4.330127018922192983e-01 2.499999999999999445e-01 -8.660254037844387076e-01
6.123724356957945814e-01 3.535533905932737309e-01 -7.071067811865474617e-01
7.499999999999998890e-01 4.330127018922191873e-01 -5.000000000000002220e-01
8.365163037378079425e-01 4.829629131445341006e-01 -2.588190451025208505e-01
8.660254037844387076e-01 4.999999999999999445e-01 6.123233995736766036e-17
8.365163037378079425e-01 4.829629131445341006e-01 2.588190451025207395e-01
7.500000000000001110e-01 4.330127018922192983e-01 4.999999999999998890e-01
6.123724356957944703e-01 3.535533905932736753e-01 7.071067811865475727e-01
4.330127018922195203e-01 2.500000000000000555e-01 8.660254037844384856e-01
2.241438680420135277e-01 1.294095225512604252e-01 9.659258262890682012e-01
-0.000000000000000000e+00 -0.000000000000000000e+00 1.000000000000000000e+00
-2.241438680420131391e-01 -1.294095225512602032e-01 9.659258262890683122e-01
-4.330127018922191873e-01 -2.499999999999998890e-01 8.660254037844387076e-01
-6.123724356957943593e-01 -3.535533905932735643e-01 7.071067811865479058e-01
-7.499999999999998890e-01 -4.330127018922191873e-01 5.000000000000003331e-01
-8.365163037378078315e-01 -4.829629131445339896e-01 2.588190451025214056e-01
-8.660254037844387076e-01 -4.999999999999999445e-01 6.123233995736766036e-17
-8.365163037378080535e-01 -4.829629131445341561e-01 -2.588190451025204064e-01
-7.500000000000003331e-01 -4.330127018922194093e-01 -4.999999999999993894e-01
-6.123724356957945814e-01 -3.535533905932737309e-01 -7.071067811865474617e-01
-4.330127018922196314e-01 -2.500000000000001110e-01 -8.660254037844384856e-01
-2.241438680420139995e-01 -1.294095225512607028e-01 -9.659258262890680902e-01
-1.060575238724906915e-16 -6.123233995736764803e-17 -1.000000000000000000e+00
8.659560562354931626e-17 8.659560562354934091e-17 -1.000000000000000000e+00
1.830127018922194926e-01 1.830127018922195203e-01 -9.659258262890682012e-01
3.535533905932736753e-01 3.535533905932737309e-01 -8.660254037844387076e-01
5.000000000000000000e-01 5.000000000000001110e-01 -7.071067811865474617e-01
6.123724356957943593e-01 6.123724356957944703e-01 -5.000000000000002220e-01
6.830127018922192983e-01 6.830127018922194093e-01 -2.588190451025208505e-01
7.071067811865474617e-01 7.071067811865475727e-01 6.123233995736766036e-17
6.830127018922192983e-01 6.830127018922194093e-01 2.588190451025207395e-01
6.123724356957944703e-01 6.123724356957945814e-01 4.999999999999998890e-01
4.999999999999998890e-01 5.000000000000000000e-01 7.071067811865475727e-01
3.535533905932738974e-01 3.535533905932739529e-01 8.660254037844384856e-01
1.830127018922194093e-01 1.830127018922194371e-01 9.659258262890682012e-01
-0.000000000000000000e+00 -0.000000000000000000e+00 1.000000000000000000e+00
-1.830127018922191040e-01 -1.830127018922191318e-01 9.659258262890683122e-01
-3.535533905932736198e-01 -3.535533905932736753e-01 8.660254037844387076e-01
-4.999999999999997780e-01 -4.999999999999998335e-01 7.071067811865479058e-01
-6.123724356957943593e-01 -6.123724356957944703e-01 5.000000000000003331e-01
-6.830127018922190762e-01 -6.830127018922191873e-01 2.588190451025214056e-01
-7.071067811865474617e-01 -7.071067811865475727e-01 6.123233995736766036e-17
-6.830127018922194093e-01 -6.830127018922195203e-01 -2.588190451025204064e-01
-6.123724356957946924e-01 -6.123724356957948034e-01 -4.999999999999993894e-01
-5.000000000000000000e-01 -5.000000000000001110e-01 -7.071067811865474617e-01
-3.535533905932739529e-01 -3.535533905932740084e-01 -8.660254037844384856e-01
-1.830127018922197979e-01 -1.830127018922198257e-01 -9.659258262890680902e-01
-8.659560562354931626e-17 -8.659560562354934091e-17 -1.000000000000000000e+00
6.123233995736768501e-17 1.060575238724906668e-16 -1.000000000000000000e+00
1.294095225512605640e-01 2.241438680420135554e-01 -9.659258262890682012e-01
2.500000000000000555e-01 4.330127018922191873e-01 -8.660254037844387076e-01
3.535533905932739529e-01 6.123724356957944703e-01 -7.071067811865474617e-01
4.330127018922194093e-01 7.499999999999996669e-01 -5.000000000000002220e-01
4.829629131445343782e-01 8.365163037378077204e-01 -2.588190451025208505e-01
5.000000000000002220e-01 8.660254037844384856e-01 6.123233995736766036e-17
4.829629131445343782e-01 8.365163037378077204e-01 2.588190451025207395e-01
4.330127018922195203e-01 7.499999999999998890e-01 4.999999999999998890e-01
3.535533905932738974e-01 6.123724356957943593e-01 7.071067811865475727e-01
2.500000000000002220e-01 4.330127018922194093e-01 8.660254037844384856e-01
1.294095225512605085e-01 2.241438680420134721e-01 9.659258262890682012e-01
-0.000000000000000000e+00 -0.000000000000000000e+00 1.000000000000000000e+00
-1.294095225512602865e-01 -2.241438680420130836e-01 9.659258262890683122e-01
-2.500000000000000000e-01 -4.330127018922190762e-01 8.660254037844387076e-01
-3.535533905932737864e-01 -6.123724356957941373e-01 7.071067811865479058e-01
-4.330127018922194093e-01 -7.499999999999996669e-01 5.000000000000003331e-01
-4.829629131445342671e-01 -8.365163037378076094e-01 2.588190451025214056e-01
-5.000000000000002220e-01 -8.660254037844384856e-01 6.123233995736766036e-17
-4.829629131445344337e-01 -8.365163037378078315e-01 -2.588190451025204064e-01
-4.330127018922196314e-01 -7.500000000000001110e-01 -4.999999999999993894e-01
-3.535533905932739529e-01 -6.123724356957944703e-01 -7.071067811865474617e-01
-2.500000000000002776e-01 -4.330127018922195203e-01 -8.660254037844384856e-01
-1.294095225512607861e-01 -2.241438680420139440e-01 -9.659258262890680902e-01
-6.123233995736768501e-17 -1.060575238724906668e-16 -1.000000000000000000e+00
3.169619151431766174e-17 1.182917971378669842e-16 -1.000000000000000000e+00
6.698729810778077109e-02 2.500000000000002776e-01 -9.659258262890682012e-01
1.294095225512603975e-01 4.829629131445341006e-01 -8.660254037844387076e-01
1.830127018922194093e-01 6.830127018922194093e-01 -7.071067811865474617e-01
2.241438680420134166e-01 8.365163037378077204e-01 -5.000000000000002220e-01
2.500000000000001110e-01 9.330127018922194093e-01 -2.588190451025208505e-01
2.588190451025208505e-01 9.659258262890683122e-01 6.123233995736766036e-17
2.500000000000001110e-01 9.330127018922194093e-01 2.588190451025207395e-01
2.241438680420134721e-01 8.365163037378079425e-01 4.999999999999998890e-01
1.830127018922193816e-01 6.830127018922192983e-01 7.071067811865475727e-01
1.294095225512604808e-01 4.829629131445343782e-01 8.660254037844384856e-01
6.698729810778074334e-02 2.500000000000001665e-01 9.659258262890682012e-01
-0.000000000000000000e+00 -0.000000000000000000e+00 1.000000000000000000e+00
-6.698729810778061844e-02 -2.499999999999997224e-01 9.659258262890683122e-01
-1.294095225512603697e-01 -4.829629131445339896e-01 8.660254037844387076e-01
-1.830127018922192983e-01 -6.830127018922190762e-01 7.071067811865479058e-01
-2.241438680420134166e-01 -8.365163037378077204e-01 5.000000000000003331e-01
-2.500000000000000555e-01 -9.330127018922191873e-01 2.588190451025214056e-01
-2.588190451025208505e-01 -9.659258262890683122e-01 6.123233995736766036e-17
-2.500000000000001110e-01 -9.330127018922195203e-01 -2.588190451025204064e-01
-2.241438680420135277e-01 -8.365163037378081645e-01 -4.999999999999993894e-01
-1.830127018922194093e-01 -6.830127018922194093e-01 -7.071067811865474617e-01
-1.294095225512605085e-01 -4.829629131445344892e-01 -8.660254037844384856e-01
-6.698729810778088212e-02 -2.500000000000006661e-01 -9.659258262890680902e-01
-3.169619151431766174e-17 -1.182917971378669842e-16 -1.000000000000000000e+00
-7.498798913309288039e-33 1.224646799147353207e-16 -1.000000000000000000e+00
-1.584809575715884011e-17 2.588190451025210170e-01 -9.659258262890682012e-01
-3.061616997868382402e-17 4.999999999999999445e-01 -8.660254037844387076e-01
-4.329780281177467045e-17 7.071067811865475727e-01 -7.071067811865474617e-01
-5.302876193624533342e-17 8.660254037844384856e-01 -5.000000000000002220e-01
-5.914589856893349208e-17 9.659258262890683122e-01 -2.588190451025208505e-01
-6.123233995736766036e-17 1.000000000000000000e+00 6.123233995736766036e-17
-5.914589856893349208e-17 9.659258262890683122e-01 2.588190451025207395e-01
-5.302876193624534574e-17 8.660254037844387076e-01 4.999999999999998890e-01
-4.329780281177465813e-17 7.071067811865474617e-01 7.071067811865475727e-01
-3.061616997868384251e-17 5.000000000000002220e-01 8.660254037844384856e-01
-1.584809575715883395e-17 2.588190451025209060e-01 9.659258262890682012e-01
0.000000000000000000e+00 -0.000000000000000000e+00 1.000000000000000000e+00
1.584809575715880622e-17 -2.588190451025204619e-01 9.659258262890683122e-01
3.061616997868381785e-17 -4.999999999999998335e-01 8.660254037844387076e-01
4.329780281177464580e-17 -7.071067811865472397e-01 7.071067811865479058e-01
5.302876193624533342e-17 -8.660254037844384856e-01 5.000000000000003331e-01
5.914589856893347975e-17 -9.659258262890680902e-01 2.588190451025214056e-01
6.123233995736766036e-17 -1.000000000000000000e+00 6.123233995736766036e-17
5.914589856893349208e-17 -9.659258262890684232e-01 -2.588190451025204064e-01
5.302876193624536423e-17 -8.660254037844389297e-01 -4.999999999999993894e-01
4.329780281177467045e-17 -7.071067811865475727e-01 -7.071067811865474617e-01
3.061616997868384867e-17 -5.000000000000003331e-01 -8.660254037844384856e-01
1.584809575715886785e-17 -2.588190451025214611e-01 -9.659258262890680902e-01
7.498798913309288039e-33 -1.224646799147353207e-16 -1.000000000000000000e+00
-3.169619151431764941e-17 1.182917971378669842e-16 -1.000000000000000000e+00
-6.698729810778074334e-02 2.500000000000002776e-01 -9.659258262890682012e-01
-1.294095225512603420e-01 4.829629131445341006e-01 -8.660254037844387076e-01
-1.830127018922193260e-01 6.830127018922194093e-01 -7.071067811865474617e-01
-2.241438680420133334e-01 8.365163037378077204e-01 -5.000000000000002220e-01
-2.499999999999999722e-01 9.330127018922194093e-01 -2.588190451025208505e-01
-2.588190451025207395e-01 9.659258262890683122e-01 6.123233995736766036e-17
-2.499999999999999722e-01 9.330127018922194093e-01 2.588190451025207395e-01
-2.241438680420133889e-01 8.365163037378079425e-01 4.999999999999998890e-01
-1.830127018922192983e-01 6.830127018922192983e-01 7.071067811865475727e-01
-1.294095225512604252e-01 4.829629131445343782e-01 8.660254037844384856e-01
-6.698729810778070171e-02 2.500000000000001665e-01 9.659258262890682012e-01
0.000000000000000000e+00 -0.000000000000000000e+00 1.000000000000000000e+00
6.698729810778059068e-02 -2.499999999999997224e-01 9.659258262890683122e-01
1.294095225512603142e-01 -4.829629131445339896e-01 8.660254037844387076e-01
1.830127018922192428e-01 -6.830127018922190762e-01 7.071067811865479058e-01
2.241438680420133334e-01 -8.365163037378077204e-01 5.000000000000003331e-01
2.499999999999999167e-01 -9.330127018922191873e-01 2.588190451025214056e-01
2.588190451025207395e-01 -9.659258262890683122e-01 6.123233995736766036e-17
2.500000000000000000e-01 -9.330127018922195203e-01 -2.588190451025204064e-01
2.241438680420134444e-01 -8.365163037378081645e-01 -4.999999999999993894e-01
1.830127018922193260e-01 -6.830127018922194093e-01 -7.071067811865474617e-01
1.294095225512604530e-01 -4.829629131445344892e-01 -8.660254037844384856e-01
6.698729810778085436e-02 -2.500000000000006661e-01 -9.659258262890680902e-01
3.169619151431764941e-17 -1.182917971378669842e-16 -1.000000000000000000e+00
-6.123233995736764803e-17 1.060575238724906915e-16 -1.000000000000000000e+00
-1.294095225512604808e-01 2.241438680420136109e-01 -9.659258262890682012e-01
-2.499999999999999167e-01 4.330127018922192983e-01 -8.660254037844387076e-01
-3.535533905932737309e-01 6.123724356957945814e-01 -7.071067811865474617e-01
-4.330127018922191318e-01 7.499999999999998890e-01 -5.000000000000002220e-01
-4.829629131445340451e-01 8.365163037378079425e-01 -2.588190451025208505e-01
-4.999999999999998890e-01 8.660254037844387076e-01 6.123233995736766036e-17
-4.829629131445340451e-01 8.365163037378079425e-01 2.588190451025207395e-01
-4.330127018922192428e-01 7.500000000000001110e-01 4.999999999999998890e-01
-3.535533905932736753e-01 6.123724356957944703e-01 7.071067811865475727e-01
-2.500000000000000555e-01 4.330127018922195203e-01 8.660254037844384856e-01
-1.294095225512604252e-01 2.241438680420135277e-01 9.659258262890682012e-01
0.000000000000000000e+00 -0.000000000000000000e+00 1.000000000000000000e+00
1.294095225512602032e-01 -2.241438680420131391e-01 9.659258262890683122e-01
2.499999999999998612e-01 -4.330127018922191873e-01 8.660254037844387076e-01
3.535533905932735643e-01 -6.123724356957943593e-01 7.071067811865479058e-01
4.330127018922191318e-01 -7.499999999999998890e-01 5.000000000000003331e-01
4.829629131445339341e-01 -8.365163037378078315e-01 2.588190451025214056e-01
4.999999999999998890e-01 -8.660254037844387076e-01 6.123233995736766036e-17
4.829629131445341006e-01 -8.365163037378080535e-01 -2.588190451025204064e-01
4.330127018922193538e-01 -7.500000000000003331e-01 -4.999999999999993894e-01
3.535533905932737309e-01 -6.123724356957945814e-01 -7.071067811865474617e-01
2.500000000000001110e-01 -4.330127018922196314e-01 -8.660254037844384856e-01
1.294095225512607028e-01 -2.241438680420139995e-01 -9.659258262890680902e-01
6.123233995736764803e-17 -1.060575238724906915e-16 -1.000000000000000000e+00
-8.659560562354934091e-17 8.659560562354931626e-17 -1.000000000000000000e+00
-1.830127018922195203e-01 1.830127018922194926e-01 -9.659258262890682012e-01
-3.535533905932737309e-01 3.535533905932736753e-01 -8.660254037844387076e-01
-5.000000000000001110e-01 5.000000000000000000e-01 -7.071067811865474617e-01
-6.123724356957944703e-01 6.123724356957943593e-01 -5.000000000000002220e-01
-6.830127018922194093e-01 6.830127018922192983e-01 -2.588190451025208505e-01
-7.071067811865475727e-01 7.071067811865474617e-01 6.123233995736766036e-17
-6.830127018922194093e-01 6.830127018922192983e-01 2.588190451025207395e-01
-6.123724356957945814e-01 6.123724356957944703e-01 4.999999999999998890e-01
-5.000000000000000000e-01 4.999999999999998890e-01 7.071067811865475727e-01
-3.535533905932739529e-01 3.535533905932738974e-01 8.660254037844384856e-01
-1.830127018922194371e-01 1.830127018922194093e-01 9.659258262890682012e-01
0.000000000000000000e+00 -0.000000000000000000e+00 1.000000000000000000e+00
1.830127018922191318e-01 -1.830127018922191040e-01 9.659258262890683122e-01
3.535533905932736753e-01 -3.535533905932736198e-01 8.660254037844387076e-01
4.999999999999998335e-01 -4.999999999999997780e-01 7.071067811865479058e-01
6.123724356957944703e-01 -6.123724356957943593e-01 5.000000000000003331e-01
6.830127018922191873e-01 -6.830127018922190762e-01 2.588190451025214056e-01
7.071067811865475727e-01 -7.071067811865474617e-01 6.123233995736766036e-17
6.830127018922195203e-01 -6.830127018922194093e-01 -2.588190451025204064e-01
6.123724356957948034e-01 -6.123724356957946924e-01 -4.999999999999993894e-01
5.000000000000001110e-01 -5.000000000000000000e-01 -7.071067811865474617e-01
3.535533905932740084e-01 -3.535533905932739529e-01 -8.660254037844384856e-01
1.830127018922198257e-01 -1.830127018922197979e-01 -9.659258262890680902e-01
8.659560562354934091e-17 -8.659560562354931626e-17 -1.000000000000000000e+00
-1.060575238724906668e-16 6.123233995736768501e-17 -1.000000000000000000e+00
-2.241438680420135554e-01 1.294095225512605640e-01 -9.659258262890682012e-01
-4.330127018922191873e-01 2.500000000000000555e-01 -8.660254037844387076e-01
-6.123724356957944703e-01 3.535533905932739529e-01 -7.071067811865474617e-01
-7.499999999999996669e-01 4.330127018922194093e-01 -5.000000000000002220e-01
-8.365163037378077204e-01 4.829629131445343782e-01 -2.588190451025208505e-01
-8.660254037844384856e-01 5.000000000000002220e-01 6.123233995736766036e-17
-8.365163037378077204e-01 4.829629131445343782e-01 2.588190451025207395e-01
-7.499999999999998890e-01 4.330127018922195203e-01 4.999999999999998890e-01
-6.123724356957943593e-01 3.535533905932738974e-01 7.071067811865475727e-01
-4.330127018922194093e-01 2.500000000000002220e-01 8.660254037844384856e-01
-2.241438680420134721e-01 1.294095225512605085e-01 9.659258262890682012e-01
0.000000000000000000e+00 -0.000000000000000000e+00 1.000000000000000000e+00
2.241438680420130836e-01 -1.294095225512602865e-01 9.659258262890683122e-01
4.330127018922190762e-01 -2.500000000000000000e-01 8.660254037844387076e-01
6.123724356957941373e-01 -3.535533905932737864e-01 7.071067811865479058e-01
7.499999999999996669e-01 -4.330127018922194093e-01 5.000000000000003331e-01
8.365163037378076094e-01 -4.829629131445342671e-01 2.588190451025214056e-01
8.660254037844384856e-01 -5.000000000000002220e-01 6.123233995736766036e-17
8.365163037378078315e-01 -4.829629131445344337e-01 -2.588190451025204064e-01
7.500000000000001110e-01 -4.330127018922196314e-01 -4.999999999999993894e-01
6.123724356957944703e-01 -3.535533905932739529e-01 -7.071067811865474617e-01
4.330127018922195203e-01 -2.500000000000002776e-01 -8.660254037844384856e-01
2.241438680420139440e-01 -1.294095225512607861e-01 -9.659258262890680902e-01
1.060575238724906668e-16 -6.123233995736768501e-17 -1.000000000000000000e+00
-1.182917971378669595e-16 3.169619151431766790e-17 -1.000000000000000000e+00
-2.500000000000002220e-01 6.698729810778078497e-02 -9.659258262890682012e-01
-4.829629131445340451e-01 1.294095225512604252e-01 -8.660254037844387076e-01
-6.830127018922192983e-01 1.830127018922194371e-01 -7.071067811865474617e-01
-8.365163037378077204e-01 2.241438680420134721e-01 -5.000000000000002220e-01
-9.330127018922192983e-01 2.500000000000001665e-01 -2.588190451025208505e-01
-9.659258262890682012e-01 2.588190451025209060e-01 6.123233995736766036e-17
-9.330127018922192983e-01 2.500000000000001665e-01 2.588190451025207395e-01
-8.365163037378079425e-01 2.241438680420135277e-01 4.999999999999998890e-01
-6.830127018922191873e-01 1.830127018922194093e-01 7.071067811865475727e-01
-4.829629131445343226e-01 1.294095225512605085e-01 8.660254037844384856e-01
-2.500000000000001110e-01 6.698729810778075722e-02 9.659258262890682012e-01
0.000000000000000000e+00 -0.000000000000000000e+00 1.000000000000000000e+00
2.499999999999996947e-01 -6.698729810778063232e-02 9.659258262890683122e-01
4.829629131445339341e-01 -1.294095225512603975e-01 8.660254037844387076e-01
6.830127018922189652e-01 -1.830127018922193538e-01 7.071067811865479058e-01
8.365163037378077204e-01 -2.241438680420134721e-01 5.000000000000003331e-01
9.330127018922190762e-01 -2.500000000000001110e-01 2.588190451025214056e-01
9.659258262890682012e-01 -2.588190451025209060e-01 6.123233995736766036e-17
9.330127018922194093e-01 -2.500000000000001665e-01 -2.588190451025204064e-01
8.365163037378080535e-01 -2.241438680420135832e-01 -4.999999999999993894e-01
6.830127018922192983e-01 -1.830127018922194371e-01 -7.071067811865474617e-01
4.829629131445344337e-01 -1.294095225512605363e-01 -8.660254037844384856e-01
2.500000000000006661e-01 -6.698729810778089599e-02 -9.659258262890680902e-01
1.182917971378669595e-16 -3.169619151431766790e-17 -1.000000000000000000e+00
-1.224646799147353207e-16 -0.000000000000000000e+00 -1.000000000000000000e+00
-2.588190451025210170e-01 -0.000000000000000000e+00 -9.659258262890682012e-01
-4.999999999999999445e-01 -0.000000000000000000e+00 -8.660254037844387076e-01
-7.071067811865475727e-01 -0.000000000000000000e+00 -7.071067811865474617e-01
-8.660254037844384856e-01 -0.000000000000000000e+00 -5.000000000000002220e-01
-9.659258262890683122e-01 -0.000000000000000000e+00 -2.588190451025208505e-01
-1.000000000000000000e+00 -0.000000000000000000e+00 6.123233995736766036e-17
-9.659258262890683122e-01 -0.000000000000000000e+00 2.588190451025207395e-01
-8.660254037844387076e-01 -0.000000000000000000e+00 4.999999999999998890e-01
-7.071067811865474617e-01 -0.000000000000000000e+00 7.071067811865475727e-01
-5.000000000000002220e-01 -0.000000000000000000e+00 8.660254037844384856e-01
-2.588190451025209060e-01 -0.000000000000000000e+00 9.659258262890682012e-01
0.000000000000000000e+00 0.000000000000000000e+00 1.000000000000000000e+00
2.588190451025204619e-01 0.000000000000000000e+00 9.659258262890683122e-01
4.999999999999998335e-01 0.000000000000000000e+00 8.660254037844387076e-01
7.071067811865472397e-01 0.000000000000000000e+00 7.071067811865479058e-01
8.660254037844384856e-01 0.000000000000000000e+00 5.000000000000003331e-01
9.659258262890680902e-01 0.000000000000000000e+00 2.588190451025214056e-01
1.000000000000000000e+00 0.000000000000000000e+00 6.123233995736766036e-17
9.659258262890684232e-01 0.000000000000000000e+00 -2.588190451025204064e-01
8.660254037844389297e-01 0.000000000000000000e+00 -4.999999999999993894e-01
7.071067811865475727e-01 0.000000000000000000e+00 -7.071067811865474617e-01
5.000000000000003331e-01 0.000000000000000000e+00 -8.660254037844384856e-01
2.588190451025214611e-01 0.000000000000000000e+00 -9.659258262890680902e-01
1.224646799147353207e-16 0.000000000000000000e+00 -1.000000000000000000e+00
-1.182917971378669842e-16 -3.169619151431761243e-17 -1.000000000000000000e+00
-2.500000000000002776e-01 -6.698729810778066007e-02 -9.659258262890682012e-01
-4.829629131445341006e-01 -1.294095225512602032e-01 -8.660254037844387076e-01
-6.830127018922194093e-01 -1.830127018922191318e-01 -7.071067811865474617e-01
-8.365163037378077204e-01 -2.241438680420130836e-01 -5.000000000000002220e-01
-9.330127018922194093e-01 -2.499999999999997224e-01 -2.588190451025208505e-01
-9.659258262890683122e-01 -2.588190451025204619e-01 6.123233995736766036e-17
-9.330127018922194093e-01 -2.499999999999997224e-01 2.588190451025207395e-01
-8.365163037378079425e-01 -2.241438680420131391e-01 4.999999999999998890e-01
-6.830127018922192983e-01 -1.830127018922191040e-01 7.071067811865475727e-01
-4.829629131445343782e-01 -1.294095225512602865e-01 8.660254037844384856e-01
-2.500000000000001665e-01 -6.698729810778063232e-02 9.659258262890682012e-01
0.000000000000000000e+00 0.000000000000000000e+00 1.000000000000000000e+00
2.499999999999997224e-01 6.698729810778052129e-02 9.659258262890683122e-01
4.829629131445339896e-01 1.294095225512601754e-01 8.660254037844387076e-01
6.830127018922190762e-01 1.830127018922190485e-01 7.071067811865479058e-01
8.365163037378077204e-01 2.241438680420130836e-01 5.000000000000003331e-01
9.330127018922191873e-01 2.499999999999996669e-01 2.588190451025214056e-01
9.659258262890683122e-01 2.588190451025204619e-01 6.123233995736766036e-17
9.330127018922195203e-01 2.499999999999997502e-01 -2.588190451025204064e-01
8.365163037378081645e-01 2.241438680420131946e-01 -4.999999999999993894e-01
6.830127018922194093e-01 1.830127018922191318e-01 -7.071067811865474617e-01
4.829629131445344892e-01 1.294095225512603142e-01 -8.660254037844384856e-01
2.500000000000006661e-01 6.698729810778078497e-02 -9.659258262890680902e-01
1.182917971378669842e-16 3.169619151431761243e-17 -1.000000000000000000e+00
-1.060575238724906915e-16 -6.123233995736763571e-17 -1.000000000000000000e+00
-2.241438680420136109e-01 -1.294095225512604530e-01 -9.659258262890682012e-01
-4.330127018922192983e-01 -2.499999999999998890e-01 -8.660254037844387076e-01
-6.123724356957945814e-01 -3.535533905932736753e-01 -7.071067811865474617e-01
-7.499999999999998890e-01 -4.330127018922190762e-01 -5.000000000000002220e-01
-8.365163037378079425e-01 -4.829629131445339896e-01 -2.588190451025208505e-01
-8.660254037844387076e-01 -4.999999999999998335e-01 6.123233995736766036e-17
-8.365163037378079425e-01 -4.829629131445339896e-01 2.588190451025207395e-01
-7.500000000000001110e-01 -4.330127018922191873e-01 4.999999999999998890e-01
-6.123724356957944703e-01 -3.535533905932736198e-01 7.071067811865475727e-01
-4.330127018922195203e-01 -2.500000000000000000e-01 8.660254037844384856e-01
-2.241438680420135277e-01 -1.294095225512603975e-01 9.659258262890682012e-01
0.000000000000000000e+00 0.000000000000000000e+00 1.000000000000000000e+00
2.241438680420131391e-01 1.294095225512601754e-01 9.659258262890683122e-01
4.330127018922191873e-01 2.499999999999998335e-01 8.660254037844387076e-01
6.123724356957943593e-01 3.535533905932735088e-01 7.071067811865479058e-01
7.499999999999998890e-01 4.330127018922190762e-01 5.000000000000003331e-01
8.365163037378078315e-01 4.829629131445338786e-01 2.588190451025214056e-01
8.660254037844387076e-01 4.999999999999998335e-01 6.123233995736766036e-17
8.365163037378080535e-01 4.829629131445340451e-01 -2.588190451025204064e-01
7.500000000000003331e-01 4.330127018922192983e-01 -4.999999999999993894e-01
6.123724356957945814e-01 3.535533905932736753e-01 -7.071067811865474617e-01
4.330127018922196314e-01 2.500000000000000555e-01 -8.660254037844384856e-01
2.241438680420139995e-01 1.294095225512606750e-01 -9.659258262890680902e-01
1.060575238724906915e-16 6.123233995736763571e-17 -1.000000000000000000e+00
-8.659560562354937789e-17 -8.659560562354929160e-17 -1.000000000000000000e+00
-1.830127018922196036e-01 -1.830127018922194371e-01 -9.659258262890682012e-01
-3.535533905932738974e-01 -3.535533905932735643e-01 -8.660254037844387076e-01
-5.000000000000003331e-01 -4.999999999999998335e-01 -7.071067811865474617e-01
-6.123724356957946924e-01 -6.123724356957941373e-01 -5.000000000000002220e-01
-6.830127018922197424e-01 -6.830127018922190762e-01 -2.588190451025208505e-01
-7.071067811865479058e-01 -7.071067811865472397e-01 6.123233995736766036e-17
-6.830127018922197424e-01 -6.830127018922190762e-01 2.588190451025207395e-01
-6.123724356957949144e-01 -6.123724356957943593e-01 4.999999999999998890e-01
-5.000000000000002220e-01 -4.999999999999997780e-01 7.071067811865475727e-01
-3.535533905932741194e-01 -3.535533905932737864e-01 8.660254037844384856e-01
-1.830127018922195203e-01 -1.830127018922193538e-01 9.659258262890682012e-01
0.000000000000000000e+00 0.000000000000000000e+00 1.000000000000000000e+00
1.830127018922192150e-01 1.830127018922190485e-01 9.659258262890683122e-01
3.535533905932738419e-01 3.535533905932735088e-01 8.660254037844387076e-01
5.000000000000001110e-01 4.999999999999996114e-01 7.071067811865479058e-01
6.123724356957946924e-01 6.123724356957941373e-01 5.000000000000003331e-01
6.830127018922195203e-01 6.830127018922188542e-01 2.588190451025214056e-01
7.071067811865479058e-01 7.071067811865472397e-01 6.123233995736766036e-17
6.830127018922197424e-01 6.830127018922191873e-01 -2.588190451025204064e-01
6.123724356957950254e-01 6.123724356957944703e-01 -4.999999999999993894e-01
5.000000000000003331e-01 4.999999999999998335e-01 -7.071067811865474617e-01
3.535533905932741749e-01 3.535533905932738419e-01 -8.660254037844384856e-01
1.830127018922199089e-01 1.830127018922197424e-01 -9.659258262890680902e-01
8.659560562354937789e-17 8.659560562354929160e-17 -1.000000000000000000e+00
-6.123233995736769734e-17 -1.060575238724906668e-16 -1.000000000000000000e+00
-1.294095225512605918e-01 -2.241438680420135554e-01 -9.659258262890682012e-01
-2.500000000000001110e-01 -4.330127018922191873e-01 -8.660254037844387076e-01
-3.535533905932740084e-01 -6.123724356957944703e-01 -7.071067811865474617e-01
-4.330127018922195203e-01 -7.499999999999996669e-01 -5.000000000000002220e-01
-4.829629131445344892e-01 -8.365163037378077204e-01 -2.588190451025208505e-01
-5.000000000000003331e-01 -8.660254037844384856e-01 6.123233995736766036e-17
-4.829629131445344892e-01 -8.365163037378077204e-01 2.588190451025207395e-01
-4.330127018922196314e-01 -7.499999999999998890e-01 4.999999999999998890e-01
-3.535533905932739529e-01 -6.123724356957943593e-01 7.071067811865475727e-01
-2.500000000000002776e-01 -4.330127018922194093e-01 8.660254037844384856e-01
-1.294095225512605363e-01 -2.241438680420134721e-01 9.659258262890682012e-01
0.000000000000000000e+00 0.000000000000000000e+00 1.000000000000000000e+00
1.294095225512603142e-01 2.241438680420130836e-01 9.659258262890683122e-01
2.500000000000000555e-01 4.330127018922190762e-01 8.660254037844387076e-01
3.535533905932738419e-01 6.123724356957941373e-01 7.071067811865479058e-01
4.330127018922195203e-01 7.499999999999996669e-01 5.000000000000003331e-01
4.829629131445343782e-01 8.365163037378076094e-01 2.588190451025214056e-01
5.000000000000003331e-01 8.660254037844384856e-01 6.123233995736766036e-17
4.829629131445345447e-01 8.365163037378078315e-01 -2.588190451025204064e-01
4.330127018922197424e-01 7.500000000000001110e-01 -4.999999999999993894e-01
3.535533905932740084e-01 6.123724356957944703e-01 -7.071067811865474617e-01
2.500000000000003331e-01 4.330127018922195203e-01 -8.660254037844384856e-01
1.294095225512608138e-01 2.241438680420139440e-01 -9.659258262890680902e-01
6.123233995736769734e-17 1.060575238724906668e-16 -1.000000000000000000e+00
-3.169619151431772953e-17 -1.182917971378669595e-16 -1.000000000000000000e+00
-6.698729810778090987e-02 -2.500000000000002220e-01 -9.659258262890682012e-01
-1.294095225512606750e-01 -4.829629131445339896e-01 -8.660254037844387076e-01
-1.830127018922197979e-01 -6.830127018922191873e-01 -7.071067811865474617e-01
-2.241438680420138885e-01 -8.365163037378076094e-01 -5.000000000000002220e-01
-2.500000000000006106e-01 -9.330127018922191873e-01 -2.588190451025208505e-01
-2.588190451025214056e-01 -9.659258262890680902e-01 6.123233995736766036e-17
-2.500000000000006106e-01 -9.330127018922191873e-01 2.588190451025207395e-01
-2.241438680420139440e-01 -8.365163037378078315e-01 4.999999999999998890e-01
-1.830127018922197701e-01 -6.830127018922190762e-01 7.071067811865475727e-01
-1.294095225512607583e-01 -4.829629131445342671e-01 8.660254037844384856e-01
-6.698729810778088212e-02 -2.500000000000001110e-01 9.659258262890682012e-01
0.000000000000000000e+00 0.000000000000000000e+00 1.000000000000000000e+00
6.698729810778077109e-02 2.499999999999996669e-01 9.659258262890683122e-01
1.294095225512606473e-01 4.829629131445338786e-01 8.660254037844387076e-01
1.830127018922197146e-01 6.830127018922188542e-01 7.071067811865479058e-01
2.241438680420138885e-01 8.365163037378076094e-01 5.000000000000003331e-01
2.500000000000005551e-01 9.330127018922189652e-01 2.588190451025214056e-01
2.588190451025214056e-01 9.659258262890680902e-01 6.123233995736766036e-17
2.500000000000006661e-01 9.330127018922192983e-01 -2.588190451025204064e-01
2.241438680420139995e-01 8.365163037378080535e-01 -4.999999999999993894e-01
1.830127018922197979e-01 6.830127018922191873e-01 -7.071067811865474617e-01
1.294095225512607861e-01 4.829629131445343782e-01 -8.660254037844384856e-01
6.698729810778102089e-02 2.500000000000006106e-01 -9.659258262890680902e-01
3.169619151431772953e-17 1.182917971378669595e-16 -1.000000000000000000e+00
-7.498798913309288039e-33 -1.224646799147353207e-16 -1.000000000000000000e+00
-1.584809575715884011e-17 -2.588190451025210170e-01 -9.659258262890682012e-01
-3.061616997868382402e-17 -4.999999999999999445e-01 -8.660254037844387076e-01
-4.329780281177467045e-17 -7.071067811865475727e-01 -7.071067811865474617e-01
-5.302876193624533342e-17 -8.660254037844384856e-01 -5.000000000000002220e-01
-5.914589856893349208e-17 -9.659258262890683122e-01 -2.588190451025208505e-01
-6.123233995736766036e-17 -1.000000000000000000e+00 6.123233995736766036e-17
-5.914589856893349208e-17 -9.659258262890683122e-01 2.588190451025207395e-01
-5.302876193624534574e-17 -8.660254037844387076e-01 4.999999999999998890e-01
-4.329780281177465813e-17 -7.071067811865474617e-01 7.071067811865475727e-01
-3.061616997868384251e-17 -5.000000000000002220e-01 8.660254037844384856e-01
-1.584809575715883395e-17 -2.588190451025209060e-01 9.659258262890682012e-01
0.000000000000000000e+00 0.000000000000000000e+00 1.000000000000000000e+00
1.584809575715880622e-17 2.588190451025204619e-01 9.659258262890683122e-01
3.061616997868381785e-17 4.999999999999998335e-01 8.660254037844387076e-01
4.329780281177464580e-17 7.071067811865472397e-01 7.071067811865479058e-01
5.302876193624533342e-17 8.660254037844384856e-01 5.000000000000003331e-01
5.914589856893347975e-17 9.659258262890680902e-01 2.588190451025214056e-01
6.123233995736766036e-17 1.000000000000000000e+00 6.123233995736766036e-17
5.914589856893349208e-17 9.659258262890684232e-01 -2.588190451025204064e-01
5.302876193624536423e-17 8.660254037844389297e-01 -4.999999999999993894e-01
4.329780281177467045e-17 7.071067811865475727e-01 -7.071067811865474617e-01
3.061616997868384867e-17 5.000000000000003331e-01 -8.660254037844384856e-01
1.584809575715886785e-17 2.588190451025214611e-01 -9.659258262890680902e-01
7.498798913309288039e-33 1.224646799147353207e-16 -1.000000000000000000e+00
3.169619151431760627e-17 -1.182917971378669842e-16 -1.000000000000000000e+00
6.698729810778064619e-02 -2.500000000000002776e-01 -9.659258262890682012e-01
1.294095225512601754e-01 -4.829629131445341561e-01 -8.660254037844387076e-01
1.830127018922190762e-01 -6.830127018922195203e-01 -7.071067811865474617e-01
2.241438680420130281e-01 -8.365163037378078315e-01 -5.000000000000002220e-01
2.499999999999996669e-01 -9.330127018922195203e-01 -2.588190451025208505e-01
2.588190451025204064e-01 -9.659258262890684232e-01 6.123233995736766036e-17
2.499999999999996669e-01 -9.330127018922195203e-01 2.588190451025207395e-01
2.241438680420130836e-01 -8.365163037378080535e-01 4.999999999999998890e-01
1.830127018922190485e-01 -6.830127018922194093e-01 7.071067811865475727e-01
1.294095225512602587e-01 -4.829629131445344337e-01 8.660254037844384856e-01
6.698729810778061844e-02 -2.500000000000001665e-01 9.659258262890682012e-01
-0.000000000000000000e+00 0.000000000000000000e+00 1.000000000000000000e+00
-6.698729810778050742e-02 2.499999999999997502e-01 9.659258262890683122e-01
-1.294095225512601477e-01 4.829629131445340451e-01 8.660254037844387076e-01
-1.830127018922189930e-01 6.830127018922191873e-01 7.071067811865479058e-01
-2.241438680420130281e-01 8.365163037378078315e-01 5.000000000000003331e-01
-2.499999999999996114e-01 9.330127018922192983e-01 2.588190451025214056e-01
-2.588190451025204064e-01 9.659258262890684232e-01 6.123233995736766036e-17
-2.499999999999996947e-01 9.330127018922196314e-01 -2.588190451025204064e-01
-2.241438680420131391e-01 8.365163037378082755e-01 -4.999999999999993894e-01
-1.830127018922190762e-01 6.830127018922195203e-01 -7.071067811865474617e-01
-1.294095225512602865e-01 4.829629131445345447e-01 -8.660254037844384856e-01
-6.698729810778077109e-02 2.500000000000007216e-01 -9.659258262890680902e-01
-3.169619151431760627e-17 1.182917971378669842e-16 -1.000000000000000000e+00
6.123233995736758640e-17 -1.060575238724907285e-16 -1.000000000000000000e+00
1.294095225512603420e-01 -2.241438680420136664e-01 -9.659258262890682012e-01
2.499999999999996669e-01 -4.330127018922194093e-01 -8.660254037844387076e-01
3.535533905932733423e-01 -6.123724356957948034e-01 -7.071067811865474617e-01
4.330127018922186877e-01 -7.500000000000001110e-01 -5.000000000000002220e-01
4.829629131445335455e-01 -8.365163037378081645e-01 -2.588190451025208505e-01
4.999999999999993894e-01 -8.660254037844389297e-01 6.123233995736766036e-17
4.829629131445335455e-01 -8.365163037378081645e-01 2.588190451025207395e-01
4.330127018922187987e-01 -7.500000000000003331e-01 4.999999999999998890e-01
3.535533905932732868e-01 -6.123724356957946924e-01 7.071067811865475727e-01
2.499999999999998057e-01 -4.330127018922196314e-01 8.660254037844384856e-01
1.294095225512602865e-01 -2.241438680420135832e-01 9.659258262890682012e-01
-0.000000000000000000e+00 0.000000000000000000e+00 1.000000000000000000e+00
-1.294095225512600644e-01 2.241438680420131946e-01 9.659258262890683122e-01
-2.499999999999996114e-01 4.330127018922192983e-01 8.660254037844387076e-01
-3.535533905932731757e-01 6.123724356957944703e-01 7.071067811865479058e-01
-4.330127018922186877e-01 7.500000000000001110e-01 5.000000000000003331e-01
-4.829629131445334345e-01 8.365163037378080535e-01 2.588190451025214056e-01
-4.999999999999993894e-01 8.660254037844389297e-01 6.123233995736766036e-17
-4.829629131445336010e-01 8.365163037378082755e-01 -2.588190451025204064e-01
-4.330127018922189097e-01 7.500000000000004441e-01 -4.999999999999993894e-01
-3.535533905932733423e-01 6.123724356957948034e-01 -7.071067811865474617e-01
-2.499999999999998612e-01 4.330127018922197424e-01 -8.660254037844384856e-01
-1.294095225512605640e-01 2.241438680420140550e-01 -9.659258262890680902e-01
-6.123233995736758640e-17 1.060575238724907285e-16 -1.000000000000000000e+00
8.659560562354931626e-17 -8.659560562354934091e-17 -1.000000000000000000e+00
1.830127018922194926e-01 -1.830127018922195203e-01 -9.659258262890682012e-01
3.535533905932736753e-01 -3.535533905932737309e-01 -8.660254037844387076e-01
5.000000000000000000e-01 -5.000000000000001110e-01 -7.071067811865474617e-01
6.123724356957943593e-01 -6.123724356957944703e-01 -5.000000000000002220e-01
6.830127018922192983e-01 -6.830127018922194093e-01 -2.588190451025208505e-01
7.071067811865474617e-01 -7.071067811865475727e-01 6.123233995736766036e-17
6.830127018922192983e-01 -6.830127018922194093e-01 2.588190451025207395e-01
6.123724356957944703e-01 -6.123724356957945814e-01 4.999999999999998890e-01
4.999999999999998890e-01 -5.000000000000000000e-01 7.071067811865475727e-01
3.535533905932738974e-01 -3.535533905932739529e-01 8.660254037844384856e-01
1.830127018922194093e-01 -1.830127018922194371e-01 9.659258262890682012e-01
-0.000000000000000000e+00 0.000000000000000000e+00 1.000000000000000000e+00
-1.830127018922191040e-01 1.830127018922191318e-01 9.659258262890683122e-01
-3.535533905932736198e-01 3.535533905932736753e-01 8.660254037844387076e-01
-4.999999999999997780e-01 4.999999999999998335e-01 7.071067811865479058e-01
-6.123724356957943593e-01 6.123724356957944703e-01 5.000000000000003331e-01
-6.830127018922190762e-01 6.830127018922191873e-01 2.588190451025214056e-01
-7.071067811865474617e-01 7.071067811865475727e-01 6.123233995736766036e-17
-6.830127018922194093e-01 6.830127018922195203e-01 -2.588190451025204064e-01
-6.123724356957946924e-01 6.123724356957948034e-01 -4.999999999999993894e-01
-5.000000000000000000e-01 5.000000000000001110e-01 -7.071067811865474617e-01
-3.535533905932739529e-01 3.535533905932740084e-01 -8.660254037844384856e-01
-1.830127018922197979e-01 1.830127018922198257e-01 -9.659258262890680902e-01
-8.659560562354931626e-17 8.659560562354934091e-17 -1.000000000000000000e+00
1.060575238724906668e-16 -6.123233995736769734e-17 -1.000000000000000000e+00
2.241438680420135554e-01 -1.294095225512605918e-01 -9.659258262890682012e-01
4.330127018922191873e-01 -2.500000000000001110e-01 -8.660254037844387076e-01
6.123724356957944703e-01 -3.535533905932740084e-01 -7.071067811865474617e-01
7.499999999999996669e-01 -4.330127018922195203e-01 -5.000000000000002220e-01
8.365163037378077204e-01 -4.829629131445344892e-01 -2.588190451025208505e-01
8.660254037844384856e-01 -5.000000000000003331e-01 6.123233995736766036e-17
8.365163037378077204e-01 -4.829629131445344892e-01 2.588190451025207395e-01
7.499999999999998890e-01 -4.330127018922196314e-01 4.999999999999998890e-01
6.123724356957943593e-01 -3.535533905932739529e-01 7.071067811865475727e-01
4.330127018922194093e-01 -2.500000000000002776e-01 8.660254037844384856e-01
2.241438680420134721e-01 -1.294095225512605363e-01 9.659258262890682012e-01
-0.000000000000000000e+00 0.000000000000000000e+00 1.000000000000000000e+00
-2.241438680420130836e-01 1.294095225512603142e-01 9.659258262890683122e-01
-4.330127018922190762e-01 2.500000000000000555e-01 8.660254037844387076e-01
-6.123724356957941373e-01 3.535533905932738419e-01 7.071067811865479058e-01
-7.499999999999996669e-01 4.330127018922195203e-01 5.000000000000003331e-01
-8.365163037378076094e-01 4.829629131445343782e-01 2.588190451025214056e-01
-8.660254037844384856e-01 5.000000000000003331e-01 6.123233995736766036e-17
-8.365163037378078315e-01 4.829629131445345447e-01 -2.588190451025204064e-01
-7.500000000000001110e-01 4.330127018922197424e-01 -4.999999999999993894e-01
-6.123724356957944703e-01 3.535533905932740084e-01 -7.071067811865474617e-01
-4.330127018922195203e-01 2.500000000000003331e-01 -8.660254037844384856e-01
-2.241438680420139440e-01 1.294095225512608138e-01 -9.659258262890680902e-01
-1.060575238724906668e-16 6.123233995736769734e-17 -1.000000000000000000e+00
1.182917971378669595e-16 -3.169619151431773569e-17 -1.000000000000000000e+00
2.500000000000002220e-01 -6.698729810778092375e-02 -9.659258262890682012e-01
4.829629131445339896e-01 -1.294095225512607028e-01 -8.660254037844387076e-01
6.830127018922191873e-01 -1.830127018922198257e-01 -7.071067811865474617e-01
8.365163037378076094e-01 -2.241438680420139440e-01 -5.000000000000002220e-01
9.330127018922191873e-01 -2.500000000000006661e-01 -2.588190451025208505e-01
9.659258262890680902e-01 -2.588190451025214611e-01 6.123233995736766036e-17
9.330127018922191873e-01 -2.500000000000006661e-01 2.588190451025207395e-01
8.365163037378078315e-01 -2.241438680420139995e-01 4.999999999999998890e-01
6.830127018922190762e-01 -1.830127018922197979e-01 7.071067811865475727e-01
4.829629131445342671e-01 -1.294095225512607861e-01 8.660254037844384856e-01
2.500000000000001110e-01 -6.698729810778089599e-02 9.659258262890682012e-01
-0.000000000000000000e+00 0.000000000000000000e+00 1.000000000000000000e+00
-2.499999999999996669e-01 6.698729810778078497e-02 9.659258262890683122e-01
-4.829629131445338786e-01 1.294095225512606750e-01 8.660254037844387076e-01
-6.830127018922188542e-01 1.830127018922197424e-01 7.071067811865479058e-01
-8.365163037378076094e-01 2.241438680420139440e-01 5.000000000000003331e-01
-9.330127018922189652e-01 2.500000000000006106e-01 2.588190451025214056e-01
-9.659258262890680902e-01 2.588190451025214611e-01 6.123233995736766036e-17
-9.330127018922192983e-01 2.500000000000007216e-01 -2.588190451025204064e-01
-8.365163037378080535e-01 2.241438680420140550e-01 -4.999999999999993894e-01
-6.830127018922191873e-01 1.830127018922198257e-01 -7.071067811865474617e-01
-4.829629131445343782e-01 1.294095225512608138e-01 -8.660254037844384856e-01
-2.500000000000006106e-01 6.698729810778103477e-02 -9.659258262890680902e-01
-1.182917971378669595e-16 3.169619151431773569e-17 -1.000000000000000000e+00
1.224646799147353207e-16 -1.499759782661857608e-32 -1.000000000000000000e+00
2.588190451025210170e-01 -3.169619151431768023e-17 -9.659258262890682012e-01
4.999999999999999445e-01 -6.123233995736764803e-17 -8.660254037844387076e-01
7.071067811865475727e-01 -8.659560562354934091e-17 -7.071067811865474617e-01
8.660254037844384856e-01 -1.060575238724906668e-16 -5.000000000000002220e-01
9.659258262890683122e-01 -1.182917971378669842e-16 -2.588190451025208505e-01
1.000000000000000000e+00 -1.224646799147353207e-16 6.123233995736766036e-17
9.659258262890683122e-01 -1.182917971378669842e-16 2.588190451025207395e-01
8.660254037844387076e-01 -1.060575238724906915e-16 4.999999999999998890e-01
7.071067811865474617e-01 -8.659560562354931626e-17 7.071067811865475727e-01
5.000000000000002220e-01 -6.123233995736768501e-17 8.660254037844384856e-01
2.588190451025209060e-01 -3.169619151431766790e-17 9.659258262890682012e-01
-0.000000000000000000e+00 0.000000000000000000e+00 1.000000000000000000e+00
-2.588190451025204619e-01 3.169619151431761243e-17 9.659258262890683122e-01
-4.999999999999998335e-01 6.123233995736763571e-17 8.660254037844387076e-01
-7.071067811865472397e-01 8.659560562354929160e-17 7.071067811865479058e-01
-8.660254037844384856e-01 1.060575238724906668e-16 5.000000000000003331e-01
-9.659258262890680902e-01 1.182917971378669595e-16 2.588190451025214056e-01
-1.000000000000000000e+00 1.224646799147353207e-16 6.123233995736766036e-17
-9.659258262890684232e-01 1.182917971378669842e-16 -2.588190451025204064e-01
-8.660254037844389297e-01 1.060575238724907285e-16 -4.999999999999993894e-01
-7.071067811865475727e-01 8.659560562354934091e-17 -7.071067811865474617e-01
-5.000000000000003331e-01 6.123233995736769734e-17 -8.660254037844384856e-01
-2.588190451025214611e-01 3.169619151431773569e-17 -9.659258262890680902e-01
-1.224646799147353207e-16 1.499759782661857608e-32 -1.000000000000000000e+00
